# .PCD v0.7 - Point Cloud Data file format
VERSION 0.7
FIELDS x y z rgb
SIZE 4 4 4 4
TYPE F F F F
COUNT 1 1 1 1
WIDTH 101
HEIGHT 1
VIEWPOINT 0 0 0 1 0 0 0
POINTS 101
DATA ascii
81.944275 56.050129 1298.7235 9.1476764e-41
115.84525 69.245773 1262.3804 9.1476764e-41
150.64496 82.948006 1231.5182 9.1476764e-41
184.67375 96.284019 1196.6091 9.1476764e-41
219.47552 110.01788 1165.4657 9.1476764e-41
253.38609 123.27689 1128.9359 9.1476764e-41
81.852028 102.59039 1315.9061 9.1476764e-41
116.6891 117.12244 1290.712 9.1476764e-41
150.11409 129.90347 1249.0078 9.1476764e-41
183.06424 142.22964 1206.5791 9.1476764e-41
216.85287 155.61635 1172.4724 9.1476764e-41
253.01659 170.48483 1148.1376 9.1476764e-41
81.273247 150.06093 1340.2415 9.1476764e-41
116.28957 164.0499 1306.4359 9.1476764e-41
149.4572 176.49675 1264.5515 9.1476764e-41
184.261 189.95256 1232.425 9.1476764e-41
219.17783 204.46167 1203.5961 9.1476764e-41
253.90337 218.03252 1171.3749 9.1476764e-41
80.941963 196.36661 1350.3225 9.1476764e-41
114.51619 208.83325 1312.2594 9.1476764e-41
149.60373 223.25482 1283.7821 9.1476764e-41
183.43222 236.19806 1246.5359 9.1476764e-41
218.31035 250.20282 1216.7083 9.1476764e-41
251.70868 262.79956 1178.0139 9.1476764e-41
-241.49612 249.47929 1183.0957 9.1476764e-41
-242.02782 204.1006 1171.1554 9.1476764e-41
-238.68971 155.76457 1140.3241 9.1476764e-41
-239.8846 110.27719 1130.3275 9.1476764e-41
-239.37706 63.81966 1112.5376 9.1476764e-41
-238.15398 17.212408 1091.1914 9.1476764e-41
-237.94176 -28.488173 1073.8069 9.1476764e-41
-203.70355 236.18614 1206.7024 9.1476764e-41
-203.87921 190.87248 1194.3173 9.1476764e-41
-201.7989 143.71144 1169.061 9.1476764e-41
-202.89336 98.470642 1159.2397 9.1476764e-41
-201.58878 51.864281 1137.4241 9.1476764e-41
-202.74304 5.7687011 1127.7424 9.1476764e-41
-203.20374 -40.400566 1114.9326 9.1476764e-41
-167.5246 224.62125 1238.5988 9.1476764e-41
-167.1418 178.52856 1222.1155 9.1476764e-41
-168.44971 134.17072 1218.8748 9.1476764e-41
-166.61212 86.839638 1191.1749 9.1476764e-41
-166.67258 40.641602 1179.0643 9.1476764e-41
-165.73767 -5.9382906 1157.2825 9.1476764e-41
-166.19809 -51.965073 1142.2534 9.1476764e-41
-131.42741 212.5766 1267.5114 9.1476764e-41
-130.69057 167.01163 1253.2076 9.1476764e-41
-131.12201 121.72246 1244.028 9.1476764e-41
-130.28484 75.164131 1226.4054 9.1476764e-41
-129.69006 28.82832 1206.7363 9.1476764e-41
-129.36188 -17.356199 1188.4628 9.1476764e-41
-129.7482 -63.901157 1176.5165 9.1476764e-41
-95.454559 202.1722 1306.2145 9.1476764e-41
-96.05677 157.3786 1301.1328 9.1476764e-41
-94.189072 109.48804 1269.7202 9.1476764e-41
-93.46859 63.267994 1251.7705 9.1476764e-41
-93.260857 17.077238 1236.4614 9.1476764e-41
-93.607254 -29.18018 1224.0248 9.1476764e-41
-93.488754 -75.213112 1207.7166 9.1476764e-41
-59.758949 191.6656 1343.5945 9.1476764e-41
-58.849159 145.12448 1330.9248 9.1476764e-41
-58.608948 98.738274 1313.5653 9.1476764e-41
-57.819065 51.943542 1287.5032 9.1476764e-41
-57.605522 5.6841908 1270.8624 9.1476764e-41
-57.500492 -40.716206 1255.8755 9.1476764e-41
-57.15971 -86.840401 1239.4896 9.1476764e-41
6.5500598 310.00122 1312.0808 9.1476764e-41
41.06263 324.07986 1281.8062 9.1476764e-41
74.743385 337.19284 1246.6631 9.1476764e-41
109.77538 352.45703 1219.9586 9.1476764e-41
143.55287 365.02292 1183.6152 9.1476764e-41
177.30852 377.1893 1145.3752 9.1476764e-41
211.33353 391.22552 1113.1804 9.1476764e-41
-29.483566 319.87729 1274.317 9.1476764e-41
4.5316248 336.31683 1252.4711 9.1476764e-41
39.12392 350.34067 1221.0248 9.1476764e-41
73.22406 363.23083 1184.8136 9.1476764e-41
106.37199 372.94711 1140.613 9.1476764e-41
140.42821 387.21997 1109.4658 9.1476764e-41
176.17183 404.8287 1087.2175 9.1476764e-41
-65.740417 332.86191 1246.7389 9.1476764e-41
-31.870157 348.44632 1221.9221 9.1476764e-41
2.4130187 360.76059 1184.5975 9.1476764e-41
36.984447 375.30057 1154.1621 9.1476764e-41
70.963623 388.97427 1121.6565 9.1476764e-41
105.19198 401.69379 1085.9204 9.1476764e-41
139.67606 417.09485 1056.4205 9.1476764e-41
-102.08119 345.79831 1219.1255 9.1476764e-41
-68.050262 359.29636 1186.2491 9.1476764e-41
-33.762764 373.1564 1154.7371 9.1476764e-41
0.49886489 386.79202 1121.1665 9.1476764e-41
34.805809 402.80438 1095.2123 9.1476764e-41
68.563469 412.59872 1051.3706 9.1476764e-41
102.49511 426.14545 1017.8602 9.1476764e-41
-138.03789 356.92892 1183.8739 9.1476764e-41
-103.7863 369.35428 1148.816 9.1476764e-41
-69.621437 382.14343 1113.9098 9.1476764e-41
-35.713223 397.1886 1085.418 9.1476764e-41
-1.7015132 411.18018 1053.8035 9.1476764e-41
32.279331 424.81747 1020.6154 9.1476764e-41
66.272522 438.50204 987.25757 9.1476764e-41
