# .PCD v0.7 - Point Cloud Data file format
VERSION 0.7
FIELDS x y z rgb
SIZE 4 4 4 4
TYPE F F F F
COUNT 1 1 1 1
WIDTH 101
HEIGHT 1
VIEWPOINT 0 0 0 1 0 0 0
POINTS 101
DATA ascii
100 250 0 2.3509886e-38
150 250 0 2.3509886e-38
200 250 0 2.3509886e-38
250 250 0 2.3509886e-38
300 250 0 2.3509886e-38
350 250 0 2.3509886e-38
100 200 0 2.3509886e-38
150 200 0 2.3509886e-38
200 200 0 2.3509886e-38
250 200 0 2.3509886e-38
300 200 0 2.3509886e-38
350 200 0 2.3509886e-38
100 150 0 2.3509886e-38
150 150 0 2.3509886e-38
200 150 0 2.3509886e-38
250 150 0 2.3509886e-38
300 150 0 2.3509886e-38
350 150 0 2.3509886e-38
100 100 0 2.3509886e-38
150 100 0 2.3509886e-38
200 100 0 2.3509886e-38
250 100 0 2.3509886e-38
300 100 0 2.3509886e-38
350 100 0 2.3509886e-38
0 100 350 2.3509886e-38
0 150 350 2.3509886e-38
0 200 350 2.3509886e-38
0 250 350 2.3509886e-38
0 300 350 2.3509886e-38
0 350 350 2.3509886e-38
0 400 350 2.3509886e-38
0 100 300 2.3509886e-38
0 150 300 2.3509886e-38
0 200 300 2.3509886e-38
0 250 300 2.3509886e-38
0 300 300 2.3509886e-38
0 350 300 2.3509886e-38
0 400 300 2.3509886e-38
0 100 250 2.3509886e-38
0 150 250 2.3509886e-38
0 200 250 2.3509886e-38
0 250 250 2.3509886e-38
0 300 250 2.3509886e-38
0 350 250 2.3509886e-38
0 400 250 2.3509886e-38
0 100 200 2.3509886e-38
0 150 200 2.3509886e-38
0 200 200 2.3509886e-38
0 250 200 2.3509886e-38
0 300 200 2.3509886e-38
0 350 200 2.3509886e-38
0 400 200 2.3509886e-38
0 100 150 2.3509886e-38
0 150 150 2.3509886e-38
0 200 150 2.3509886e-38
0 250 150 2.3509886e-38
0 300 150 2.3509886e-38
0 350 150 2.3509886e-38
0 400 150 2.3509886e-38
0 100 100 2.3509886e-38
0 150 100 2.3509886e-38
0 200 100 2.3509886e-38
0 250 100 2.3509886e-38
0 300 100 2.3509886e-38
0 350 100 2.3509886e-38
0 400 100 2.3509886e-38
100 0 100 2.3509886e-38
150 0 100 2.3509886e-38
200 0 100 2.3509886e-38
250 0 100 2.3509886e-38
300 0 100 2.3509886e-38
350 0 100 2.3509886e-38
400 0 100 2.3509886e-38
100 0 150 2.3509886e-38
150 0 150 2.3509886e-38
200 0 150 2.3509886e-38
250 0 150 2.3509886e-38
300 0 150 2.3509886e-38
350 0 150 2.3509886e-38
400 0 150 2.3509886e-38
100 0 200 2.3509886e-38
150 0 200 2.3509886e-38
200 0 200 2.3509886e-38
250 0 200 2.3509886e-38
300 0 200 2.3509886e-38
350 0 200 2.3509886e-38
400 0 200 2.3509886e-38
100 0 250 2.3509886e-38
150 0 250 2.3509886e-38
200 0 250 2.3509886e-38
250 0 250 2.3509886e-38
300 0 250 2.3509886e-38
350 0 250 2.3509886e-38
400 0 250 2.3509886e-38
100 0 300 2.3509886e-38
150 0 300 2.3509886e-38
200 0 300 2.3509886e-38
250 0 300 2.3509886e-38
300 0 300 2.3509886e-38
350 0 300 2.3509886e-38
400 0 300 2.3509886e-38
